# .PCD v0.7 - Point Cloud Data file format
VERSION 0.7
FIELDS x y z rgb
SIZE 4 4 4 4
TYPE F F F U
COUNT 1 1 1 1
WIDTH 158
HEIGHT 1
VIEWPOINT 0 0 0 1 0 0 0
POINTS 158
DATA ascii
0.50940824 0.01484874 -0.15441521 4279636516
0.51039481 0.015367899 -0.15927199 4279439394
0.50742412 0.025533283 -0.15540609 4279636522
0.51013541 0.020845249 -0.15343113 4279900478
0.50938523 0.0086666225 -0.14857988 4279834149
0.51082003 0.0058953571 -0.14786652 4279636256
0.52373326 0.0026669235 -0.14811912 4279702302
0.50889605 0.013491563 -0.14872687 4280360235
0.50613946 0.026257966 -0.14601372 4280031016
0.50519997 -0.0024166161 -0.13088326 4279767838
0.52913791 -0.0082591223 -0.13828345 4282597433
0.53284854 -0.0085705854 -0.13312717 4279899680
0.45869282 0.01883422 -0.13341817 4279768098
0.46005803 0.019124297 -0.13208616 4279767842
0.46008366 0.020254014 -0.13284087 4279767843
0.53473604 -0.016503297 -0.12636243 4283320894
0.45955321 -0.00059365161 -0.12114713 4279636509
0.46464211 -0.00068003539 -0.12127648 4280031264
0.47751054 -0.00074467948 -0.12429126 4280097058
0.48510247 -0.0014281562 -0.12538438 4279899679
0.49770492 -0.0014117251 -0.12845775 4279899679
0.50546771 -0.003567667 -0.12928484 4279702302
0.5364266 -0.0089875497 -0.1289092 4279702044
0.45843595 0.0057793562 -0.12371018 4280294439
0.46016377 0.0032574725 -0.12262779 4280754987
0.45770767 0.015055288 -0.12234475 4279965995
0.45752653 0.02451642 -0.12252782 4279899946
0.49715334 -0.011004033 -0.11130089 4281347122
0.53858852 -0.019890347 -0.1195669 4279768346
0.45950365 -0.0028882353 -0.11188185 4280886316
0.46098295 -0.001819877 -0.115329 4280886828
0.47138667 -0.002625789 -0.11977462 4279833886
0.49754086 -0.0088840462 -0.11231184 4281347122
0.45838153 0.0057086172 -0.11468925 4280031785
0.46048176 0.0017886708 -0.11642864 4280491817
0.45771098 0.014967303 -0.11494078 4280887609
0.45685604 0.024971284 -0.11498008 4280294703
0.51376915 -0.024219371 -0.10075542 4279833888
0.5462268 -0.028518977 -0.1088742 4280754984
0.4796755 -0.010368226 -0.10124075 4279439643
0.48444191 -0.010522225 -0.10189433 4279439388
0.49613586 -0.013453098 -0.10392642 4280886573
0.50021929 -0.017220177 -0.10270569 4281412659
0.45964 -0.0027153559 -0.10787416 4279965732
0.46082363 -0.0035036569 -0.10343151 4279899941
0.47733876 -0.0070913872 -0.10319007 4279570975
0.4854525 -0.0091361189 -0.10381777 4279439132
0.49495175 -0.0095433854 -0.10514835 4279899683
0.45788801 0.0060596629 -0.10563467 4279570722
0.46036476 0.0018740639 -0.10339315 4279965737
0.45838633 0.014971566 -0.10497008 4279965481
0.45684621 0.02488544 -0.10494983 4280031274
0.51662052 -0.032238401 -0.091357999 4279834142
0.52540857 -0.034347765 -0.093266763 4280228385
0.55115688 -0.038291603 -0.097539529 4284044614
0.49848473 -0.022146152 -0.093401611 4281346866
0.50056356 -0.024576109 -0.094139889 4280754731
0.51324934 -0.024195258 -0.099401124 4279965473
0.47579864 -0.016059346 -0.091741748 4279570717
0.48526272 -0.016752072 -0.092367172 4279702048
0.49694031 -0.015505558 -0.095917128 4280163112
0.45997345 -0.0064200191 -0.099095196 4279636771
0.46242326 -0.0037992226 -0.095041484 4279899944
0.47303835 -0.0086379191 -0.096735999 4279570977
0.49351877 -0.0053305002 -0.092578419 4279834151
0.45877594 0.0079501523 -0.097189128 4279636772
0.46293592 0.0042171506 -0.094178997 4279899944
0.49083373 0.001042962 -0.090982199 4279899944
0.45927992 0.014640417 -0.097452156 4279373087
0.46310434 0.0154716 -0.092654884 4279899944
0.45772085 0.02534527 -0.096808575 4280162599
0.46250576 0.022803059 -0.092334054 4280162600
0.54440129 -0.040353809 -0.087506406 4279767582
0.55694789 -0.047201362 -0.08623939 4284833867
0.49458063 -0.030985584 -0.081171788 4281741878
0.51819372 -0.035359971 -0.085382968 4280031265
0.52224964 -0.038473453 -0.083803497 4279899679
0.53033406 -0.039311074 -0.084858485 4279768094
0.4951565 -0.024279041 -0.085362859 4280557610
0.5003891 -0.026873169 -0.089920297 4281873722
0.47778997 -0.017776128 -0.089223474 4279504926
0.48431429 -0.018043814 -0.089227229 4279570465
0.49436551 -0.014866364 -0.084669776 4279768358
0.46565413 -0.00070177997 -0.089403071 4279899944
0.48976046 -0.0016337513 -0.081185833 4279834151
0.49308968 -0.0053169238 -0.08524254 4279834151
0.46802837 0.0061352532 -0.088526525 4279965737
0.47352332 0.0075028022 -0.083507672 4279965737
0.48864296 0.0029156369 -0.083112337 4279899944
0.4906629 0.001557753 -0.0873207 4279899944
0.46785635 0.01554627 -0.087567843 4280031273
0.47216108 0.014435667 -0.083032832 4280623147
0.51569742 -0.041066002 -0.071336582 4281610293
0.52241433 -0.043082181 -0.075154267 4280031264
0.55998778 -0.049677208 -0.079801701 4281938487
0.49663848 -0.032615792 -0.074271135 4280623146
0.50229651 -0.035527099 -0.073602699 4281478964
0.51585561 -0.037581317 -0.075449742 4281676085
0.52024394 -0.039701395 -0.077552669 4280294177
0.49435839 -0.024440838 -0.074454911 4279768357
0.49426377 -0.015075088 -0.075057536 4279834151
0.48917797 -0.0013707893 -0.0733869 4279834151
0.49281663 -0.0059944196 -0.075380921 4279834151
0.47780845 0.0082288049 -0.077637039 4279965223
0.48547009 0.0043658726 -0.074233338 4280096807
0.53243726 -0.052679095 -0.064096272 4279965210
0.56787819 -0.059201006 -0.065143704 4282136881
0.50623566 -0.041499954 -0.061822295 4279767840
0.51592278 -0.04413458 -0.065383032 4281544757
0.52053016 -0.045168541 -0.064854026 4281676343
0.49816173 -0.033184391 -0.067507863 4279636257
0.50240344 -0.035044458 -0.062832706 4279702051
0.5118767 -0.035840351 -0.062992781 4280228394
0.49733025 -0.024814777 -0.066002592 4279768358
0.50416678 -0.025374604 -0.061337508 4279702565
0.51067245 -0.026619613 -0.060474645 4279702565
0.49723577 -0.014823339 -0.065756083 4279833638
0.50376493 -0.016607111 -0.061576393 4279833638
0.48946995 -0.0011597734 -0.068481505 4279899430
0.49357891 -0.0052909157 -0.064731352 4279899174
0.57317835 -0.067494035 -0.056523077 4282992186
0.51904452 -0.051059432 -0.054221056 4280754987
0.5218336 -0.053184159 -0.05419727 4281478708
0.53108287 -0.057017591 -0.051320188 4281413169
0.50768381 -0.041159257 -0.059652861 4279570465
0.51593781 -0.044806886 -0.054811943 4279834149
0.52002025 -0.0402532 -0.050213084 4279702565
0.50709701 -0.036915679 -0.059391059 4279767845
0.51631457 -0.035096772 -0.054769721 4279768101
0.52002186 -0.039305199 -0.050213244 4279702565
0.50935215 -0.022223813 -0.058894109 4279768358
0.51491487 -0.025174735 -0.054447893 4279768102
0.4979209 -0.011003801 -0.058403894 4279768102
0.50609469 -0.014520261 -0.055221524 4279833637
0.51245278 -0.018939691 -0.052161083 4279833638
0.53209835 -0.06293232 -0.042691212 4280886829
0.51970065 -0.05134654 -0.049487244 4279439133
0.52498865 -0.053771567 -0.044396844 4279570978
0.53064841 -0.056622218 -0.043788861 4280426027
0.51962644 -0.046938125 -0.049595997 4279636772
0.52405649 -0.04485777 -0.044911426 4279702565
0.53007686 -0.049536608 -0.040359676 4279702310
0.5196712 -0.033557601 -0.049592525 4279833638
0.52283657 -0.035259083 -0.044701006 4279768101
0.51677173 -0.024586922 -0.045211941 4279833381
0.5209232 -0.029238094 -0.042036142 4279767845
0.53477478 -0.064807035 -0.034870379 4280162855
0.52979857 -0.058011029 -0.039952107 4279505187
0.53235376 -0.05501572 -0.035022743 4279636775
0.5294373 -0.04306173 -0.038757831 4279768102
0.53163522 -0.045382485 -0.034339488 4279636518
0.52757806 -0.034268405 -0.035560325 4279767845
0.53076202 -0.038375441 -0.032285679 4279767845
0.53762174 -0.064869858 -0.025010545 4280493111
0.54017276 -0.069783628 -0.020642798 4279636772
0.53762043 -0.054960761 -0.02505848 4282074972
0.54012799 -0.057861883 -0.02523694 4283261302
0.53454906 -0.04493444 -0.024915861 4280098097
