# .PCD v0.7 - Point Cloud Data file format
VERSION 0.7
FIELDS x y z rgb
SIZE 4 4 4 4
TYPE F F F U
COUNT 1 1 1 1
WIDTH 448
HEIGHT 1
VIEWPOINT 0 0 0 1 0 0 0
POINTS 448
DATA ascii
0.59930301 -0.0071531152 0.013276327 4279175707
0.60065317 -0.0037656589 0.016348304 4279175708
0.59956843 0.0064248974 0.012809956 4279175708
0.60050851 0.0039916364 0.016720297 4279175709
0.59889239 0.015231729 0.014744418 4279833634
0.60025257 0.012436762 0.019430866 4279241502
0.59865737 0.025044911 0.015107935 4279241501
0.598324 0.033961609 0.015265387 4279702049
0.60063672 0.038769718 0.014477188 4281939253
0.59953851 -0.01119996 0.02404966 4278978329
0.60405999 -0.0161479 0.02515948 4279044122
0.59983706 -0.0096157603 0.024110708 4279109916
0.60145354 -0.0047659813 0.025112404 4279175709
0.60130811 0.004981712 0.025041692 4279175709
0.59974658 0.01899381 0.021449257 4279175709
0.60078681 0.014786818 0.025258183 4279109916
0.5996691 0.024916545 0.021681204 4279241502
0.60038429 0.025191635 0.026444364 4279241502
0.59922028 0.034703232 0.022256617 4279241501
0.60055077 0.035210598 0.026895702 4279241502
0.60166848 0.04500249 0.024916407 4279833891
0.60581374 -0.025024721 0.034950215 4279175709
0.60423183 -0.015070671 0.034880694 4279044122
0.60241717 -0.0051094177 0.034973636 4279109916
0.60250658 0.0049907267 0.03497944 4279109916
0.60161728 0.015075556 0.034927405 4279044123
0.60104066 0.025144065 0.034893349 4279175709
0.60115415 0.03501451 0.034899868 4279175709
0.60207772 0.044947468 0.034953818 4279109916
0.60302067 0.054914989 0.035007838 4279175709
0.60724223 -0.025065413 0.044979613 4279175708
0.59988916 -0.010341637 0.04423169 4279044123
0.60565555 -0.015222127 0.044904795 4279044122
0.59970057 -0.0094300089 0.044369105 4279175709
0.60337967 -0.0047547752 0.044875991 4279175709
0.60381263 0.0050021312 0.044962574 4279109916
0.60315818 0.015146942 0.044954255 4279109916
0.60212111 0.02507619 0.045000654 4279175709
0.60213661 0.034945916 0.045104221 4279175709
0.6032874 0.045037311 0.044923522 4279175709
0.60381103 0.054985773 0.044962049 4279109916
0.60438752 0.064945489 0.045014195 4279241502
0.60891074 -0.024500385 0.054722015 4279175708
0.61034 -0.028494889 0.058427624 4279175708
0.60764992 -0.015148434 0.055058651 4279044122
0.6037516 -0.0050370782 0.054783486 4279175708
0.60466367 0.0050090449 0.054947734 4279175709
0.60408735 0.015105985 0.054931872 4279109916
0.60297835 0.025002994 0.055014152 4279109916
0.60302889 0.034913924 0.055008765 4279241502
0.60396445 0.04508796 0.054883838 4279241502
0.60422397 0.055022907 0.054907281 4279109916
0.60499644 0.064975619 0.054939985 4279175709
0.60610127 0.073687561 0.055404168 4279504671
0.60981393 -0.021631453 0.061122432 4279175708
0.61073476 -0.025274372 0.065385967 4279175452
0.60834247 -0.014652036 0.064661272 4279109915
0.61013478 -0.018935103 0.06762448 4279175708
0.59998763 -0.0085930368 0.064367384 4278978329
0.60409176 -0.0042476892 0.064692847 4279175708
0.6049844 0.005064643 0.06504 4279175708
0.60419035 0.015140083 0.06503839 4279109916
0.60312825 0.025009217 0.064924061 4279044123
0.60319579 0.034914091 0.064931333 4279109916
0.60412151 0.045099858 0.065031037 4279175709
0.60442966 0.055041652 0.065064609 4279109916
0.60557216 0.064821608 0.065029711 4279241502
0.60710323 0.074760742 0.065178834 4279241757
0.61266375 -0.025039796 0.074954048 4279175451
0.60825884 -0.013083004 0.074890137 4279109915
0.61109436 -0.018130226 0.075151652 4279175708
0.60484576 -0.0044890414 0.075032704 4279109915
0.60500878 0.0050002774 0.075024612 4279109916
0.60379773 0.015129511 0.075123064 4279109916
0.60250878 0.025053641 0.075010039 4279109916
0.60228026 0.034924883 0.07488592 4279109916
0.60319138 0.045031145 0.075045973 4279109918
0.6044547 0.054994762 0.075068049 4279109917
0.60625625 0.064948931 0.075008109 4279175709
0.60811305 0.074753545 0.074640155 4279175709
0.61049199 0.078508511 0.078844406 4279175708
0.60769516 0.080480859 0.074320398 4279241756
0.61033416 0.081591271 0.078230776 4279241755
0.62708426 0.089651085 0.070399463 4284175429
0.61520278 -0.024660917 0.083884582 4279240986
0.62142324 -0.025205595 0.089319408 4279372571
0.60795373 -0.012813468 0.08489541 4279241501
0.61261845 -0.017824974 0.084746107 4279175707
0.60397536 -0.004811509 0.085216753 4279109915
0.60372037 0.0049581383 0.084855445 4279175709
0.60281801 0.015159915 0.084992215 4279241758
0.60155249 0.025165524 0.084935322 4279175709
0.6012702 0.035020489 0.084895566 4279504930
0.60197592 0.044931732 0.08498618 4279636517
0.60435945 0.055087164 0.084969409 4279307295
0.60656124 0.065041572 0.084936529 4279109916
0.60942078 0.072607063 0.084270366 4279109916
0.61162579 0.077274494 0.085692413 4279175709
0.61391556 0.083191961 0.085251085 4279307035
0.61973703 -0.020578504 0.092927352 4279307037
0.62336373 -0.025368538 0.094959833 4279833115
0.60765731 -0.012117685 0.094480425 4279438624
0.61339152 -0.01641955 0.095355779 4279307038
0.62061512 -0.019570243 0.097811274 4279306780
0.60587329 -0.0050713583 0.09503264 4279109916
0.60444784 0.005059998 0.094875559 4279438881
0.60384679 0.015066754 0.095034748 4279702310
0.6028083 0.025059495 0.094971314 4279175710
0.60255343 0.034944121 0.095015265 4279241761
0.60373819 0.045102421 0.095089711 4279241761
0.60524076 0.0550102 0.094943441 4279109920
0.60771847 0.064988367 0.094892479 4279109920
0.61021024 0.069496825 0.099419937 4279044386
0.60982376 0.070859611 0.091720454 4279110174
0.61179572 0.074935414 0.095241547 4279109917
0.61737674 0.083856724 0.093827099 4279241242
0.62053055 0.086055383 0.098476112 4279307290
0.61900902 -0.020474246 0.10732826 4279240987
0.62375712 -0.024865663 0.1050192 4280688162
0.60923237 -0.011031969 0.10083069 4279175196
0.61385351 -0.014628355 0.10548821 4279175195
0.62318671 -0.01963111 0.10243291 4279109401
0.60911626 -0.0042172638 0.1016876 4279109660
0.61143965 -0.005322088 0.10647943 4279044125
0.60746592 0.0056399447 0.10484213 4279110181
0.61067885 0.0011320281 0.10742003 4279044391
0.60657364 0.014945376 0.10515343 4278979107
0.60498846 0.024953628 0.10506108 4279506486
0.60389876 0.034849223 0.10490773 4279308334
0.60526538 0.04519688 0.10501612 4279835458
0.60619938 0.05455669 0.10501467 4279374129
0.60861808 0.064151354 0.1047487 4280231507
0.6108464 0.068731956 0.10548896 4279439664
0.61362594 0.074771754 0.10493426 4279175968
0.61831683 0.080622233 0.10468557 4279109916
0.62191153 0.085735314 0.10493226 4279241499
0.62342983 0.090812981 0.107087 4282070583
0.64166105 0.099628136 0.10195511 4285424973
0.61886472 -0.020327488 0.11075941 4279175194
0.62699354 -0.025205305 0.11511157 4282332974
0.63039839 -0.020956501 0.1192756 4279372313
0.61550182 -0.013352213 0.11482652 4279175195
0.63163418 -0.018005116 0.11888321 4279240732
0.6143102 -0.0051615415 0.11527087 4279439660
0.60594529 0.0077287336 0.1142536 4280429659
0.61370051 0.0016219156 0.11722334 4282143894
0.60583073 0.015085344 0.11506844 4279439919
0.61014533 0.013213944 0.11269944 4279044647
0.60442913 0.024920952 0.11479722 4280692055
0.60274529 0.034605689 0.11431579 4279834932
0.60416293 0.045111179 0.11482792 4280361539
0.60419393 0.05440446 0.11428566 4280097589
0.60792983 0.064116009 0.11434871 4280229432
0.61088175 0.068676628 0.11549042 4279570726
0.61483407 0.074694321 0.11492436 4279373089
0.61920124 0.080094457 0.1104582 4279109916
0.62458473 0.085810773 0.11472917 4279241241
0.6294353 -0.027548634 0.12046086 4285556038
0.63395953 -0.022644917 0.12461001 4282990385
0.61450976 -0.012386402 0.12177699 4279306779
0.63567996 -0.018052522 0.1254473 4279437850
0.64065051 -0.015435981 0.12960987 4279503645
0.6096518 -0.00046150674 0.12498347 4282927446
0.61304092 -0.0047431109 0.12477401 4279636259
0.60771072 0.0052848952 0.12504742 4280361528
0.61054599 0.0011430505 0.12204336 4280888149
0.60536087 0.015040803 0.12486691 4279636517
0.60454398 0.025095129 0.12492628 4279833896
0.60477144 0.034956034 0.1253456 4279702310
0.60610551 0.045276407 0.12531286 4279833639
0.60697156 0.054805402 0.12520614 4279702310
0.60892355 0.062555499 0.12395897 4279833640
0.61141014 0.067042217 0.12576744 4279504674
0.6146059 0.073583685 0.12407228 4279175709
0.62706149 0.079216465 0.12904283 4279307295
0.6279577 0.085805446 0.12514977 4279175707
0.63066113 0.087426804 0.12839961 4279175708
0.62783498 0.090614699 0.12547988 4279767835
0.63885456 -0.02326108 0.13060448 4286082631
0.64145386 -0.022284713 0.13173719 4285951047
0.63961595 -0.018769797 0.13042679 4279963930
0.64549881 -0.014531489 0.13517426 4279569434
0.65028667 -0.011574985 0.13803834 4279438106
0.61140805 -0.0029494877 0.13580997 4279504671
0.62895983 -0.0090079773 0.13192348 4279701793
0.64975363 -0.0088319173 0.13675882 4279767586
0.65053076 -0.0091517894 0.13813961 4279372828
0.60921621 0.0064331056 0.13524479 4279636258
0.61048782 0.0030300878 0.13454291 4279504672
0.60771906 0.01504552 0.13492408 4279504673
0.60711962 0.025014663 0.13498132 4279636259
0.60715622 0.034882084 0.13493453 4279504673
0.60860842 0.044903949 0.13499703 4279504674
0.6101318 0.048900522 0.13734844 4279175709
0.60825813 0.054953877 0.1350446 4279307295
0.6105969 0.056463998 0.13488843 4279109916
0.6099093 0.061115474 0.13466117 4279175709
0.61151862 0.065157995 0.13463499 4279175709
0.61513013 0.072921507 0.13415943 4279175709
0.62523931 0.078111477 0.13570388 4279110172
0.62863135 0.083026335 0.13414572 4279175708
0.6307044 0.087201774 0.13551956 4279241499
0.62853575 0.090240523 0.13068861 4279373079
0.6332283 0.091410376 0.13646212 4279702043
0.6680786 0.10893355 0.135424 4285687627
0.67064655 0.10917787 0.13933972 4285819210
0.67750585 -0.022167357 0.14599138 4286016836
0.68142039 -0.027197862 0.14539124 4286280007
0.6474427 -0.012879733 0.14056456 4279438361
0.65677261 -0.014007628 0.14600371 4280951329
0.66051495 -0.011238419 0.14834318 4279504153
0.67638195 -0.019320738 0.14741448 4285885505
0.61285394 -0.0012837212 0.14234284 4279241501
0.62433696 -0.004126281 0.14533134 4279307293
0.66086692 -0.0099469256 0.14873751 4279438363
0.60973907 0.0052941558 0.14074752 4279175708
0.61141503 0.0025425118 0.14277115 4279175708
0.60781896 0.016643716 0.14127223 4279241501
0.60865569 0.025019875 0.14184275 4279175708
0.61235768 0.023772435 0.14420344 4279109915
0.62226653 0.025124591 0.14821866 4279109915
0.60882831 0.033851512 0.14131637 4279241501
0.61059535 0.038328297 0.14216407 4279175709
0.60827351 0.045662548 0.14169037 4279175709
0.61037171 0.041771851 0.14182428 4279175709
0.60781533 0.053618267 0.14112051 4279175709
0.61112297 0.059061125 0.14293399 4279307295
0.61437428 0.06248809 0.14331301 4279307294
0.62693185 0.076809824 0.14323419 4279307551
0.63108695 0.075152382 0.14708732 4279636515
0.62755436 0.081148572 0.14140527 4279241759
0.63225532 0.085714757 0.14535902 4279439136
0.63386923 0.090312898 0.14820874 4279702048
0.6717568 0.10942862 0.14506499 4285819722
0.65822393 -0.012272932 0.1534574 4284240698
0.66042495 -0.010783037 0.15020332 4279701786
0.67974633 -0.019154429 0.15034252 4286082882
0.68234324 -0.018327951 0.15589848 4285884993
0.65847486 -0.0068625445 0.15640508 4280096286
0.66079384 -0.0073781316 0.15353708 4279438618
0.65986395 0.0093178423 0.15958028 4279373085
0.66085029 0.005900444 0.15962027 4279504671
0.65893215 0.015420618 0.15876929 4279241501
0.63377851 0.026281996 0.15073034 4279109915
0.65803665 0.024821769 0.15878125 4279109915
0.6577881 0.035555486 0.15878224 4279109915
0.65620452 0.045426652 0.15786844 4279241502
0.65480745 0.053863183 0.15771699 4279438881
0.65435547 0.065192297 0.15946513 4279109916
0.63396692 0.074837908 0.15008089 4280096811
0.65397495 0.07777793 0.159033 4279109916
0.63540626 0.085074879 0.15241428 4279241758
0.64359677 0.086255826 0.15695226 4279373344
0.65098971 0.081528403 0.15842381 4279110173
0.64206415 0.092534944 0.15621319 4279767585
0.67197806 0.10918923 0.1545095 4286148428
0.68831152 -0.018236725 0.16514339 4286280006
0.69150221 -0.014237914 0.16934943 4286279491
0.65959603 -0.0046357824 0.16042407 4280688418
0.66662127 -0.0014456298 0.16567071 4280753949
0.69273853 -0.0095844083 0.16921477 4285687354
0.65988708 0.0094251316 0.16060187 4279373085
0.66321069 0.0053248401 0.16546458 4279241241
0.65897739 0.015943248 0.16434549 4279109916
0.66059703 0.011665883 0.16699576 4279109915
0.65841734 0.025143506 0.16475476 4279175708
0.65834498 0.035126124 0.16487969 4279175709
0.65775591 0.044976674 0.16507827 4279175709
0.65695196 0.054864105 0.16501342 4279109916
0.65595853 0.065073691 0.16498818 4279109916
0.65448117 0.075169154 0.16494331 4279175709
0.64157492 0.087805256 0.16710401 4279307808
0.65476888 0.083747163 0.1653365 4279175709
0.64533997 0.093559839 0.16483547 4279899682
0.67653674 0.10957291 0.16199276 4286148174
0.67685306 0.11483227 0.16255723 4286411598
0.68308544 0.11601095 0.16765442 4285621835
0.69605654 -0.015125026 0.17535032 4286280006
0.66834903 -0.00066722318 0.17282526 4281542690
0.67057604 -0.0003119577 0.17879872 4283187505
0.68906736 -0.0073560802 0.17493448 4286016067
0.69513887 -0.0073847794 0.17370714 4286016578
0.66539329 0.0050345887 0.17493752 4279504409
0.67028165 0.00017701967 0.17945352 4282266157
0.65965146 0.018183107 0.17211284 4279109916
0.66112703 0.014462253 0.17576899 4279175709
0.65961778 0.025227148 0.17382054 4279109916
0.66013354 0.024442792 0.17848551 4279109917
0.65954846 0.035365146 0.1740001 4279109916
0.66012836 0.033348639 0.17845595 4279110173
0.65918863 0.044883486 0.17504263 4279110173
0.65915215 0.054976866 0.1750323 4279110173
0.65862262 0.064985223 0.17505118 4279175709
0.65683848 0.07499899 0.17497011 4279241759
0.64691722 0.084687978 0.1713893 4279373345
0.65563983 0.083968945 0.17520231 4279504931
0.64917153 0.093964748 0.17137364 4280294438
0.65634048 0.094924293 0.17621453 4280426025
0.66048515 0.093021519 0.17914282 4279504929
0.6869154 0.11638146 0.17469366 4284438084
0.69925559 -0.014807949 0.18208055 4286477128
0.70140111 -0.015020827 0.1871547 4286280006
0.67769796 -0.00043856597 0.18971691 4284437563
0.68146187 -0.00031702194 0.18915601 4284371767
0.69861752 -0.004712916 0.18596019 4285358141
0.70101529 -0.0071559818 0.18773626 4285752896
0.66418308 0.0068861959 0.18402168 4279373340
0.67520827 0.0028864373 0.18779071 4280754466
0.68066508 0.00067607901 0.18810762 4284044601
0.65989292 0.018462257 0.18990688 4279505703
0.66067266 0.01502522 0.18492953 4279241760
0.65993226 0.023834014 0.18506697 4279241759
0.66024512 0.025429595 0.18517661 4279110174
0.65986967 0.038037408 0.1839468 4279110173
0.66030484 0.034320105 0.18535961 4279307296
0.65958917 0.045054376 0.18482853 4279504931
0.6600458 0.041749962 0.1891655 4279965483
0.6595363 0.05443139 0.18356903 4279504931
0.66020191 0.056357611 0.18812953 4279833896
0.65955561 0.065630674 0.18275481 4279636517
0.66018969 0.064490825 0.18738338 4279636517
0.65937942 0.075269513 0.18460092 4279899689
0.66008794 0.074343748 0.18943788 4279570724
0.65873569 0.08499071 0.18513791 4279965482
0.6594106 0.091953114 0.1863219 4279439138
0.66127372 0.096140675 0.18456313 4279504159
0.66153127 0.10238146 0.18811223 4283177255
0.68935281 0.11609336 0.18303615 4283319867
0.691486 0.1167727 0.18738303 4283056953
0.67183256 -0.00090979581 0.19402911 4280753694
0.69978976 -0.0016297746 0.19078447 4284701242
0.70223129 -0.0059849895 0.19470374 4285884995
0.66536295 0.0058544064 0.19605194 4279373343
0.67192775 0.0027082877 0.19285806 4279570205
0.65974683 0.018406538 0.19184108 4279505703
0.66179985 0.014569671 0.19553562 4279834411
0.65973347 0.023524731 0.1922193 4279900460
0.66120756 0.025798485 0.1964388 4280097327
0.65979242 0.032847803 0.19269741 4279833898
0.66092795 0.035341516 0.19546448 4280031276
0.65996456 0.047396734 0.19051582 4280360240
0.66098815 0.044896454 0.19521438 4280031275
0.66161817 0.05505003 0.19500233 4279702310
0.6618104 0.064909793 0.19509009 4279636518
0.66207588 0.074928641 0.19503714 4279702310
0.6597777 0.088495515 0.19118458 4279570724
0.66194636 0.084689915 0.1953405 4279833896
0.65951926 0.091772772 0.191413 4279373347
0.66324949 0.095496193 0.19552937 4279570468
0.66453356 0.10427509 0.19513309 4282723388
0.66762167 0.11070279 0.19979979 4287247169
0.68806022 0.1178837 0.19647917 4282200626
0.69239515 0.11659934 0.19312631 4282266674
0.67348641 -0.00047708818 0.20077705 4280753951
0.70548803 -0.0065289428 0.20526126 4285884996
0.6637482 0.0058738012 0.20419522 4279373087
0.67233384 0.0006675995 0.20193094 4279964698
0.66242033 0.015096042 0.20482953 4279768105
0.66234547 0.025018342 0.20494497 4279768105
0.66283154 0.03487834 0.20497008 4279833896
0.66317439 0.045112465 0.20489332 4279504931
0.66342121 0.054985676 0.20501119 4279504932
0.6639533 0.064917177 0.20478204 4279570724
0.66534907 0.075024329 0.20485623 4279570724
0.66599303 0.084950954 0.20489039 4279570724
0.6673215 0.094913147 0.20481013 4279636517
0.6708203 0.098920994 0.20915574 4279702053
0.66789186 0.10448609 0.20252641 4280227883
0.67177975 0.10524996 0.20764926 4279702053
0.66844898 0.11073721 0.20201766 4287190365
0.67433476 0.11228533 0.20786166 4280556589
0.70661378 -0.0060119242 0.21514705 4286016837
0.66513383 0.0079095354 0.21341042 4279570465
0.68301255 0.0020986774 0.21468325 4279964955
0.66448104 0.015046983 0.214863 4279833639
0.6641854 0.024816258 0.21498539 4280031275
0.66470885 0.035141759 0.21495305 4279833896
0.66603118 0.045062494 0.21505372 4279636517
0.66736484 0.054924238 0.21524139 4280031532
0.66815275 0.064617999 0.21487159 4280031276
0.67035127 0.068961971 0.21831809 4280031275
0.66883528 0.074700147 0.21240383 4279899689
0.6708498 0.075253211 0.217354 4280031275
0.66918385 0.083558813 0.21149871 4279702310
0.67182028 0.085421965 0.21624267 4279899689
0.66978085 0.092254706 0.21033756 4279570724
0.67284518 0.095032722 0.21532558 4279702053
0.67538011 0.10487787 0.21514112 4279636260
0.67818123 0.11262335 0.21362145 4279504673
0.68121696 0.11618588 0.21734059 4279372831
0.70817697 -0.0061047659 0.22450382 4286147910
0.71010262 -0.0075806952 0.22973269 4286477131
0.67694926 0.0095575284 0.22246122 4279570466
0.68661875 0.0058482937 0.22504619 4279504414
0.6921941 0.0021480634 0.22687313 4280030493
0.66794121 0.016025525 0.22249971 4279702053
0.67120242 0.013030482 0.22481668 4279570467
0.68636245 0.010192632 0.22705849 4279504673
0.66721916 0.025132062 0.22317888 4279636517
0.67094362 0.025881212 0.22763386 4279636517
0.66751492 0.035014436 0.22328581 4279702310
0.67160141 0.034506962 0.22845073 4279570724
0.66791153 0.044746824 0.22289096 4279570724
0.67043984 0.044643205 0.22662266 4279636517
0.66879278 0.054987114 0.22204503 4279899689
0.6723507 0.055613559 0.22675568 4279636517
0.66944045 0.062857859 0.22171044 4280096811
0.67263991 0.065841399 0.22534917 4279636261
0.67436141 0.074980527 0.22474685 4279570724
0.67560863 0.08508341 0.22484574 4279636260
0.67660683 0.094986588 0.22479695 4279636260
0.68020111 0.099229217 0.22964972 4279636259
0.67744094 0.10340617 0.22356454 4279636260
0.68136239 0.10785002 0.22609101 4279702052
0.69489115 0.0052871173 0.23553352 4279569950
0.70044756 0.00044033944 0.23861368 4280490782
0.6871469 0.017046541 0.23537879 4279570467
0.69240099 0.013035183 0.23789908 4279438881
0.67514759 0.027245915 0.23036188 4279636517
0.68714249 0.024829147 0.23678453 4279702310
0.69006926 0.020480862 0.23969169 4279636260
0.67318207 0.034642223 0.23006204 4279570724
0.6878984 0.034961529 0.23813879 4279570724
0.68564367 0.045501038 0.23601896 4279636517
0.67760301 0.056672093 0.2308315 4279570724
0.68551457 0.054717094 0.23616615 4279636260
0.67875952 0.067930251 0.23086578 4279570468
0.68504381 0.064943895 0.23593231 4279570469
0.67934197 0.075312264 0.23072889 4279702310
0.68316573 0.074951023 0.23567688 4279636517
0.67959863 0.085565493 0.23070982 4279702053
0.68235093 0.085012831 0.23536633 4279767845
0.6797899 0.093615346 0.23058505 4279636260
0.68379503 0.094988994 0.23516667 4280031013
0.69211286 0.015062917 0.24502373 4279570467
0.68943775 0.025443194 0.24114847 4279570724
0.69071633 0.024914417 0.24601972 4279768103
0.68919432 0.034977976 0.24115488 4279570724
0.6914084 0.035000451 0.24625817 4279833896
0.68890202 0.045586348 0.24165089 4279570724
0.69149029 0.04462193 0.24661613 4279702310
0.68900377 0.054904845 0.24146138 4279636260
0.69147259 0.054936744 0.24659444 4279636003
0.68881541 0.065672599 0.24250156 4279702056
0.69127363 0.064002894 0.2471436 4279833638
0.68847805 0.074639037 0.24299428 4279965223
0.69199914 0.074207135 0.24766299 4282662707
0.68754607 0.083811432 0.24245626 4282597170
